0.614, -0.806, 2.280, 0.000, 0.996, 0.301
0.671, -0.799, 2.260, 0.000, 0.996, 0.281
0.723, -0.786, 2.225, 0.000, 0.996, 0.246
0.784, -0.783, 2.216, 0.000, 0.996, 0.238
0.842, -0.777, 2.198, 0.000, 0.996, 0.219
0.917, -0.786, 2.223, 0.000, 0.996, 0.242
0.988, -0.788, 2.230, 0.000, 0.996, 0.250
1.051, -0.783, 2.217, 0.000, 0.996, 0.238
1.117, -0.781, 2.208, 0.000, 0.996, 0.230
1.185, -0.778, 2.201, 0.000, 0.996, 0.223
-1.424, -0.868, 2.565, 0.000, 0.996, 0.590
-1.349, -0.875, 2.585, 0.000, 0.996, 0.609
-1.248, -0.863, 2.548, 0.000, 0.996, 0.570
-1.183, -0.874, 2.581, 0.000, 0.996, 0.605
-1.083, -0.857, 2.533, 0.000, 0.996, 0.555
-1.010, -0.860, 2.539, 0.000, 0.996, 0.562
-0.927, -0.852, 2.517, 0.000, 0.996, 0.539
-0.857, -0.855, 2.527, 0.000, 0.996, 0.551
-0.737, -0.803, 2.371, 0.000, 0.996, 0.395
-0.699, -0.836, 2.470, 0.000, 0.996, 0.492
-0.613, -0.813, 2.401, 0.000, 0.996, 0.422
-0.541, -0.802, 2.368, 0.000, 0.996, 0.391
-0.487, -0.818, 2.416, 0.000, 0.996, 0.438
-0.413, -0.799, 2.360, 0.000, 0.996, 0.383
-0.351, -0.800, 2.364, 0.000, 0.996, 0.387
-0.294, -0.812, 2.400, 0.000, 0.996, 0.422
-0.230, -0.806, 2.382, 0.000, 0.996, 0.402
-0.165, -0.791, 2.337, 0.000, 0.996, 0.359
-0.106, -0.795, 2.349, 0.000, 0.996, 0.371
-0.042, -0.738, 2.180, 0.000, 0.996, 0.199
0.015, -0.788, 2.328, 0.000, 0.996, 0.352
0.074, -0.779, 2.301, 0.000, 0.996, 0.324
0.133, -0.779, 2.302, 0.000, 0.996, 0.324
0.190, -0.770, 2.274, 0.000, 0.996, 0.297
0.248, -0.766, 2.263, 0.000, 0.996, 0.285
0.306, -0.764, 2.258, 0.000, 0.996, 0.277
0.361, -0.756, 2.234, 0.000, 0.996, 0.254
0.425, -0.764, 2.257, 0.000, 0.996, 0.277
0.488, -0.769, 2.272, 0.000, 0.996, 0.293
0.542, -0.758, 2.239, 0.000, 0.996, 0.262
0.598, -0.752, 2.220, 0.000, 0.996, 0.242
0.662, -0.755, 2.230, 0.000, 0.996, 0.250
0.730, -0.761, 2.247, 0.000, 0.996, 0.270
0.785, -0.751, 2.219, 0.000, 0.996, 0.238
0.843, -0.745, 2.201, 0.000, 0.996, 0.223
0.919, -0.754, 2.227, 0.000, 0.996, 0.246
0.980, -0.749, 2.213, 0.000, 0.996, 0.234
1.050, -0.750, 2.215, 0.000, 0.996, 0.234
1.092, -0.731, 2.160, 0.000, 0.996, 0.180
1.199, -0.754, 2.226, 0.000, 0.996, 0.246
-1.467, -0.856, 2.644, 0.000, 0.996, 0.668
-1.357, -0.842, 2.600, 0.000, 0.996, 0.621
-1.267, -0.837, 2.586, 0.000, 0.996, 0.609
-1.178, -0.832, 2.569, 0.000, 0.996, 0.594
-1.091, -0.826, 2.552, 0.000, 0.996, 0.574
-1.003, -0.817, 2.523, 0.000, 0.996, 0.547
-0.925, -0.814, 2.513, 0.000, 0.996, 0.535
-0.839, -0.800, 2.471, 0.000, 0.996, 0.492
-0.742, -0.773, 2.386, 0.000, 0.996, 0.406
-0.696, -0.796, 2.459, 0.000, 0.996, 0.480
-0.602, -0.762, 2.355, 0.000, 0.996, 0.375
-0.549, -0.779, 2.405, 0.000, 0.996, 0.426
-0.490, -0.787, 2.431, 0.000, 0.996, 0.453
-0.422, -0.780, 2.410, 0.000, 0.996, 0.434
-0.353, -0.770, 2.378, 0.000, 0.996, 0.398
-0.292, -0.772, 2.385, 0.000, 0.996, 0.406
-0.231, -0.775, 2.395, 0.000, 0.996, 0.418
-0.164, -0.752, 2.322, 0.000, 0.996, 0.344
-0.106, -0.763, 2.356, 0.000, 0.996, 0.379
-0.043, -0.722, 2.231, 0.000, 0.996, 0.250
0.015, -0.750, 2.317, 0.000, 0.996, 0.340
0.074, -0.751, 2.321, 0.000, 0.996, 0.344
0.135, -0.757, 2.338, 0.000, 0.996, 0.359
0.192, -0.742, 2.293, 0.000, 0.996, 0.312
0.249, -0.737, 2.275, 0.000, 0.996, 0.297
0.310, -0.740, 2.287, 0.000, 0.996, 0.309
0.370, -0.741, 2.290, 0.000, 0.996, 0.312
0.427, -0.734, 2.268, 0.000, 0.996, 0.289
0.484, -0.729, 2.253, 0.000, 0.996, 0.273
0.541, -0.724, 2.237, 0.000, 0.996, 0.258
0.604, -0.727, 2.245, 0.000, 0.996, 0.266
0.663, -0.722, 2.231, 0.000, 0.996, 0.254
0.722, -0.719, 2.220, 0.000, 0.996, 0.242
0.782, -0.715, 2.210, 0.000, 0.996, 0.230
0.854, -0.723, 2.232, 0.000, 0.996, 0.254
0.915, -0.718, 2.218, 0.000, 0.996, 0.238
0.980, -0.716, 2.212, 0.000, 0.996, 0.234
1.038, -0.709, 2.190, 0.000, 0.996, 0.211
1.113, -0.713, 2.202, 0.000, 0.996, 0.223
1.180, -0.709, 2.191, 0.000, 0.996, 0.211
-1.449, -0.807, 2.610, 0.000, 0.996, 0.633
-1.358, -0.804, 2.601, 0.000, 0.996, 0.625
-1.258, -0.794, 2.569, 0.000, 0.996, 0.590
-1.173, -0.791, 2.558, 0.000, 0.996, 0.582
-1.087, -0.786, 2.542, 0.000, 0.996, 0.566
-1.012, -0.787, 2.545, 0.000, 0.996, 0.566
-0.927, -0.778, 2.517, 0.000, 0.996, 0.539
-0.849, -0.773, 2.502, 0.000, 0.996, 0.523
-0.740, -0.736, 2.380, 0.000, 0.996, 0.402
-0.698, -0.763, 2.468, 0.000, 0.996, 0.488
-0.587, -0.711, 2.299, 0.000, 0.996, 0.320
-0.549, -0.743, 2.403, 0.000, 0.996, 0.426
-0.485, -0.744, 2.408, 0.000, 0.996, 0.430
-0.422, -0.745, 2.410, 0.000, 0.996, 0.434
-0.356, -0.741, 2.397, 0.000, 0.996, 0.418
-0.294, -0.741, 2.397, 0.000, 0.996, 0.418
-0.230, -0.735, 2.378, 0.000, 0.996, 0.398
-0.165, -0.722, 2.336, 0.000, 0.996, 0.355
-0.104, -0.715, 2.315, 0.000, 0.996, 0.336
-0.043, -0.686, 2.219, 0.000, 0.996, 0.238
0.015, -0.718, 2.322, 0.000, 0.996, 0.344
0.073, -0.706, 2.285, 0.000, 0.996, 0.305
0.131, -0.701, 2.270, 0.000, 0.996, 0.289
0.191, -0.706, 2.285, 0.000, 0.996, 0.305
0.245, -0.692, 2.240, 0.000, 0.996, 0.262
0.306, -0.698, 2.257, 0.000, 0.996, 0.277
0.361, -0.691, 2.235, 0.000, 0.996, 0.254
0.418, -0.687, 2.224, 0.000, 0.996, 0.246
0.481, -0.691, 2.237, 0.000, 0.996, 0.258
0.543, -0.694, 2.245, 0.000, 0.996, 0.266
0.598, -0.687, 2.222, 0.000, 0.996, 0.242
0.658, -0.685, 2.216, 0.000, 0.996, 0.238
0.715, -0.680, 2.199, 0.000, 0.996, 0.219
0.781, -0.682, 2.208, 0.000, 0.996, 0.227
0.843, -0.680, 2.201, 0.000, 0.996, 0.223
0.907, -0.680, 2.199, 0.000, 0.996, 0.219
0.968, -0.675, 2.185, 0.000, 0.996, 0.203
1.040, -0.678, 2.194, 0.000, 0.996, 0.215
1.100, -0.672, 2.176, 0.000, 0.996, 0.195
1.173, -0.674, 2.179, 0.000, 0.996, 0.199
-1.449, -0.769, 2.611, 0.000, 0.996, 0.633
-1.349, -0.761, 2.585, 0.000, 0.996, 0.609
-1.270, -0.764, 2.593, 0.000, 0.996, 0.617
-1.192, -0.766, 2.600, 0.000, 0.996, 0.625
-1.095, -0.754, 2.560, 0.000, 0.996, 0.582
-1.001, -0.741, 2.517, 0.000, 0.996, 0.539
-0.938, -0.750, 2.547, 0.000, 0.996, 0.570
-0.850, -0.738, 2.506, 0.000, 0.996, 0.527
-0.753, -0.713, 2.421, 0.000, 0.996, 0.441
-0.699, -0.728, 2.470, 0.000, 0.996, 0.492
-0.592, -0.682, 2.316, 0.000, 0.996, 0.336
-0.553, -0.714, 2.423, 0.000, 0.996, 0.445
-0.486, -0.710, 2.412, 0.000, 0.996, 0.434
-0.423, -0.713, 2.420, 0.000, 0.996, 0.441
-0.355, -0.704, 2.389, 0.000, 0.996, 0.410
-0.291, -0.701, 2.379, 0.000, 0.996, 0.398
-0.230, -0.702, 2.384, 0.000, 0.996, 0.406
-0.168, -0.701, 2.380, 0.000, 0.996, 0.402
-0.104, -0.683, 2.318, 0.000, 0.996, 0.340
-0.044, -0.666, 2.260, 0.000, 0.996, 0.281
0.015, -0.685, 2.327, 0.000, 0.996, 0.348
0.074, -0.677, 2.297, 0.000, 0.996, 0.316
0.132, -0.673, 2.284, 0.000, 0.996, 0.305
0.191, -0.674, 2.288, 0.000, 0.996, 0.309
0.250, -0.674, 2.288, 0.000, 0.996, 0.309
0.306, -0.664, 2.256, 0.000, 0.996, 0.277
0.364, -0.664, 2.253, 0.000, 0.996, 0.273
0.421, -0.658, 2.235, 0.000, 0.996, 0.254
0.477, -0.654, 2.220, 0.000, 0.996, 0.242
0.542, -0.660, 2.240, 0.000, 0.996, 0.262
0.599, -0.656, 2.226, 0.000, 0.996, 0.246
0.658, -0.653, 2.216, 0.000, 0.996, 0.238
0.724, -0.656, 2.228, 0.000, 0.996, 0.250
0.784, -0.653, 2.217, 0.000, 0.996, 0.238
0.849, -0.653, 2.218, 0.000, 0.996, 0.238
0.907, -0.648, 2.199, 0.000, 0.996, 0.219
0.976, -0.649, 2.205, 0.000, 0.996, 0.227
1.044, -0.649, 2.203, 0.000, 0.996, 0.223
1.114, -0.649, 2.203, 0.000, 0.996, 0.223
1.165, -0.637, 2.164, 0.000, 0.996, 0.184
-1.465, -0.739, 2.639, 0.000, 0.996, 0.664
-1.360, -0.730, 2.606, 0.000, 0.996, 0.629
-1.268, -0.725, 2.589, 0.000, 0.996, 0.613
-1.189, -0.727, 2.595, 0.000, 0.996, 0.617
-1.092, -0.715, 2.554, 0.000, 0.996, 0.578
-1.007, -0.709, 2.532, 0.000, 0.996, 0.555
-0.932, -0.709, 2.531, 0.000, 0.996, 0.555
-0.847, -0.699, 2.495, 0.000, 0.996, 0.516
-0.737, -0.664, 2.371, 0.000, 0.996, 0.395
-0.698, -0.691, 2.468, 0.000, 0.996, 0.488
-0.586, -0.642, 2.293, 0.000, 0.996, 0.316
-0.562, -0.690, 2.462, 0.000, 0.996, 0.484
-0.490, -0.681, 2.432, 0.000, 0.996, 0.453
-0.419, -0.670, 2.393, 0.000, 0.996, 0.414
-0.357, -0.673, 2.404, 0.000, 0.996, 0.426
-0.293, -0.671, 2.395, 0.000, 0.996, 0.418
-0.227, -0.660, 2.357, 0.000, 0.996, 0.379
-0.167, -0.663, 2.367, 0.000, 0.996, 0.391
-0.105, -0.655, 2.339, 0.000, 0.996, 0.359
-0.044, -0.643, 2.297, 0.000, 0.996, 0.316
0.015, -0.652, 2.328, 0.000, 0.996, 0.352
0.074, -0.649, 2.316, 0.000, 0.996, 0.336
0.133, -0.643, 2.297, 0.000, 0.996, 0.316
0.191, -0.639, 2.280, 0.000, 0.996, 0.301
0.249, -0.638, 2.276, 0.000, 0.996, 0.297
0.311, -0.642, 2.293, 0.000, 0.996, 0.312
0.363, -0.628, 2.242, 0.000, 0.996, 0.262
0.421, -0.627, 2.237, 0.000, 0.996, 0.258
0.482, -0.628, 2.243, 0.000, 0.996, 0.262
0.532, -0.616, 2.200, 0.000, 0.996, 0.219
0.601, -0.625, 2.232, 0.000, 0.996, 0.254
0.662, -0.624, 2.228, 0.000, 0.996, 0.250
0.725, -0.625, 2.230, 0.000, 0.996, 0.250
0.777, -0.615, 2.197, 0.000, 0.996, 0.219
0.842, -0.616, 2.199, 0.000, 0.996, 0.219
0.910, -0.618, 2.205, 0.000, 0.996, 0.227
0.971, -0.614, 2.192, 0.000, 0.996, 0.211
1.034, -0.611, 2.183, 0.000, 0.996, 0.203
1.109, -0.614, 2.192, 0.000, 0.996, 0.215
1.184, -0.616, 2.199, 0.000, 0.996, 0.219
-1.482, -0.710, 2.670, 0.000, 0.996, 0.695
-1.380, -0.703, 2.643, 0.000, 0.996, 0.668
-1.312, -0.712, 2.679, 0.000, 0.996, 0.703
-1.210, -0.702, 2.640, 0.000, 0.996, 0.664
-1.114, -0.693, 2.605, 0.000, 0.996, 0.629
-1.027, -0.687, 2.584, 0.000, 0.996, 0.605
-0.955, -0.689, 2.593, 0.000, 0.996, 0.617
-0.866, -0.678, 2.552, 0.000, 0.996, 0.574
-0.759, -0.649, 2.442, 0.000, 0.996, 0.465
-0.716, -0.673, 2.531, 0.000, 0.996, 0.555
-0.579, -0.602, 2.266, 0.000, 0.996, 0.289
-0.563, -0.655, 2.466, 0.000, 0.996, 0.488
-0.494, -0.652, 2.453, 0.000, 0.996, 0.477
-0.432, -0.656, 2.468, 0.000, 0.996, 0.492
-0.362, -0.647, 2.436, 0.000, 0.996, 0.457
-0.298, -0.648, 2.436, 0.000, 0.996, 0.457
-0.236, -0.650, 2.447, 0.000, 0.996, 0.469
-0.171, -0.645, 2.426, 0.000, 0.996, 0.449
-0.106, -0.624, 2.349, 0.000, 0.996, 0.371
-0.044, -0.609, 2.290, 0.000, 0.996, 0.312
0.015, -0.624, 2.346, 0.000, 0.996, 0.367
0.074, -0.611, 2.299, 0.000, 0.996, 0.320
0.133, -0.610, 2.297, 0.000, 0.996, 0.316
0.191, -0.607, 2.283, 0.000, 0.996, 0.305
0.251, -0.609, 2.291, 0.000, 0.996, 0.312
0.312, -0.612, 2.301, 0.000, 0.996, 0.320
0.371, -0.609, 2.291, 0.000, 0.996, 0.312
0.428, -0.604, 2.273, 0.000, 0.996, 0.293
0.490, -0.606, 2.279, 0.000, 0.996, 0.301
0.544, -0.598, 2.248, 0.000, 0.996, 0.270
0.611, -0.604, 2.271, 0.000, 0.996, 0.293
0.667, -0.597, 2.245, 0.000, 0.996, 0.266
0.729, -0.596, 2.243, 0.000, 0.996, 0.262
0.784, -0.589, 2.218, 0.000, 0.996, 0.238
0.859, -0.597, 2.244, 0.000, 0.996, 0.266
0.916, -0.590, 2.220, 0.000, 0.996, 0.242
0.980, -0.588, 2.214, 0.000, 0.996, 0.234
1.053, -0.590, 2.221, 0.000, 0.996, 0.242
1.124, -0.591, 2.223, 0.000, 0.996, 0.242
1.197, -0.591, 2.223, 0.000, 0.996, 0.242
-1.566, -0.710, 2.821, 0.000, 0.996, 0.848
-1.433, -0.691, 2.746, 0.000, 0.996, 0.770
-1.331, -0.684, 2.717, 0.000, 0.996, 0.742
-1.241, -0.681, 2.707, 0.000, 0.996, 0.730
-1.146, -0.674, 2.679, 0.000, 0.996, 0.703
-1.068, -0.676, 2.687, 0.000, 0.996, 0.711
-0.978, -0.668, 2.656, 0.000, 0.996, 0.680
-0.897, -0.665, 2.643, 0.000, 0.996, 0.668
-0.742, -0.601, 2.387, 0.000, 0.996, 0.410
-0.739, -0.657, 2.611, 0.000, 0.996, 0.633
-0.585, -0.576, 2.289, 0.000, 0.996, 0.309
-0.586, -0.646, 2.567, 0.000, 0.996, 0.590
-0.515, -0.642, 2.554, 0.000, 0.996, 0.578
-0.444, -0.638, 2.537, 0.000, 0.996, 0.559
-0.371, -0.629, 2.500, 0.000, 0.996, 0.523
-0.306, -0.629, 2.501, 0.000, 0.996, 0.523
-0.238, -0.620, 2.465, 0.000, 0.996, 0.488
-0.176, -0.628, 2.495, 0.000, 0.996, 0.520
-0.110, -0.614, 2.440, 0.000, 0.996, 0.461
-0.045, -0.594, 2.360, 0.000, 0.996, 0.383
0.015, -0.601, 2.389, 0.000, 0.996, 0.410
0.074, -0.578, 2.297, 0.000, 0.996, 0.316
0.132, -0.575, 2.284, 0.000, 0.996, 0.305
0.192, -0.577, 2.292, 0.000, 0.996, 0.312
0.262, -0.601, 2.389, 0.000, 0.996, 0.410
0.323, -0.599, 2.381, 0.000, 0.996, 0.402
0.390, -0.607, 2.413, 0.000, 0.996, 0.434
0.451, -0.603, 2.398, 0.000, 0.996, 0.418
0.504, -0.590, 2.347, 0.000, 0.996, 0.367
0.560, -0.582, 2.314, 0.000, 0.996, 0.336
0.632, -0.591, 2.347, 0.000, 0.996, 0.367
0.689, -0.584, 2.322, 0.000, 0.996, 0.344
0.751, -0.582, 2.311, 0.000, 0.996, 0.332
0.814, -0.579, 2.301, 0.000, 0.996, 0.324
0.879, -0.578, 2.296, 0.000, 0.996, 0.316
0.952, -0.581, 2.308, 0.000, 0.996, 0.328
1.019, -0.579, 2.300, 0.000, 0.996, 0.320
1.078, -0.573, 2.276, 0.000, 0.996, 0.297
1.156, -0.575, 2.285, 0.000, 0.996, 0.305
1.203, -0.562, 2.235, 0.000, 0.996, 0.254
-1.604, -0.686, 2.890, 0.000, 0.996, 0.914
-1.503, -0.684, 2.879, 0.000, 0.996, 0.906
-1.396, -0.677, 2.850, 0.000, 0.996, 0.875
-1.318, -0.683, 2.876, 0.000, 0.996, 0.902
-1.186, -0.658, 2.773, 0.000, 0.996, 0.797
-1.102, -0.658, 2.771, 0.000, 0.996, 0.797
-1.025, -0.661, 2.785, 0.000, 0.996, 0.809
-0.940, -0.658, 2.771, 0.000, 0.996, 0.797
-0.741, -0.566, 2.383, 0.000, 0.996, 0.406
-0.769, -0.646, 2.718, 0.000, 0.996, 0.742
-0.577, -0.536, 2.259, 0.000, 0.996, 0.281
-0.616, -0.641, 2.699, 0.000, 0.996, 0.723
-0.533, -0.628, 2.643, 0.000, 0.996, 0.668
-0.459, -0.623, 2.621, 0.000, 0.996, 0.645
-0.390, -0.623, 2.625, 0.000, 0.996, 0.648
-0.321, -0.622, 2.620, 0.000, 0.996, 0.645
-0.255, -0.627, 2.639, 0.000, 0.996, 0.664
-0.184, -0.620, 2.609, 0.000, 0.996, 0.633
-0.114, -0.604, 2.544, 0.000, 0.996, 0.566
-0.047, -0.586, 2.466, 0.000, 0.996, 0.488
0.016, -0.593, 2.496, 0.000, 0.996, 0.520
0.073, -0.544, 2.289, 0.000, 0.996, 0.309
0.132, -0.544, 2.289, 0.000, 0.996, 0.309
0.192, -0.545, 2.295, 0.000, 0.996, 0.316
0.266, -0.577, 2.432, 0.000, 0.996, 0.453
0.332, -0.582, 2.452, 0.000, 0.996, 0.473
0.392, -0.576, 2.425, 0.000, 0.996, 0.445
0.460, -0.580, 2.444, 0.000, 0.996, 0.465
0.523, -0.577, 2.432, 0.000, 0.996, 0.453
0.585, -0.574, 2.418, 0.000, 0.996, 0.441
0.652, -0.575, 2.421, 0.000, 0.996, 0.441
0.714, -0.571, 2.404, 0.000, 0.996, 0.426
0.796, -0.581, 2.449, 0.000, 0.996, 0.473
0.839, -0.563, 2.373, 0.000, 0.996, 0.395
0.907, -0.562, 2.368, 0.000, 0.996, 0.391
0.982, -0.565, 2.381, 0.000, 0.996, 0.402
1.053, -0.565, 2.378, 0.000, 0.996, 0.398
1.119, -0.561, 2.361, 0.000, 0.996, 0.383
1.168, -0.549, 2.310, 0.000, 0.996, 0.332
1.272, -0.561, 2.362, 0.000, 0.996, 0.383
-1.676, -0.675, 3.019, 0.000, 0.941, 0.996
-1.564, -0.670, 2.997, 0.000, 0.965, 0.996
-1.461, -0.666, 2.983, 0.000, 0.980, 0.996
-1.344, -0.655, 2.933, 0.000, 0.996, 0.957
-1.255, -0.656, 2.936, 0.000, 0.996, 0.961
-1.147, -0.644, 2.884, 0.000, 0.996, 0.910
-1.058, -0.642, 2.874, 0.000, 0.996, 0.898
-0.960, -0.632, 2.828, 0.000, 0.996, 0.852
-0.730, -0.524, 2.347, 0.000, 0.996, 0.367
-0.788, -0.622, 2.785, 0.000, 0.996, 0.809
-0.577, -0.505, 2.259, 0.000, 0.996, 0.281
-0.635, -0.621, 2.780, 0.000, 0.996, 0.805
-0.561, -0.622, 2.785, 0.000, 0.996, 0.809
-0.482, -0.616, 2.758, 0.000, 0.996, 0.781
-0.402, -0.604, 2.703, 0.000, 0.996, 0.727
-0.331, -0.603, 2.699, 0.000, 0.996, 0.723
-0.258, -0.597, 2.672, 0.000, 0.996, 0.695
-0.188, -0.596, 2.666, 0.000, 0.996, 0.691
-0.118, -0.586, 2.624, 0.000, 0.996, 0.648
-0.051, -0.587, 2.627, 0.000, 0.996, 0.648
0.017, -0.575, 2.575, 0.000, 0.996, 0.598
0.074, -0.516, 2.308, 0.000, 0.996, 0.328
0.133, -0.516, 2.309, 0.000, 0.996, 0.328
0.191, -0.510, 2.284, 0.000, 0.996, 0.305
0.279, -0.569, 2.545, 0.000, 0.996, 0.566
0.343, -0.566, 2.533, 0.000, 0.996, 0.555
0.408, -0.564, 2.523, 0.000, 0.996, 0.547
0.480, -0.570, 2.549, 0.000, 0.996, 0.570
0.539, -0.560, 2.508, 0.000, 0.996, 0.531
0.602, -0.556, 2.491, 0.000, 0.996, 0.512
0.686, -0.569, 2.548, 0.000, 0.996, 0.570
0.728, -0.548, 2.453, 0.000, 0.996, 0.477
0.801, -0.550, 2.464, 0.000, 0.996, 0.484
0.881, -0.556, 2.490, 0.000, 0.996, 0.512
0.952, -0.555, 2.486, 0.000, 0.996, 0.508
1.012, -0.548, 2.453, 0.000, 0.996, 0.477
1.086, -0.548, 2.452, 0.000, 0.996, 0.473
1.161, -0.548, 2.451, 0.000, 0.996, 0.473
1.214, -0.536, 2.401, 0.000, 0.996, 0.422
1.314, -0.545, 2.441, 0.000, 0.996, 0.465
-1.709, -0.645, 3.079, 0.000, 0.883, 0.996
-1.604, -0.644, 3.073, 0.000, 0.891, 0.996
-1.494, -0.639, 3.051, 0.000, 0.910, 0.996
-1.391, -0.636, 3.035, 0.000, 0.926, 0.996
-1.289, -0.632, 3.015, 0.000, 0.949, 0.996
-1.181, -0.622, 2.970, 0.000, 0.992, 0.996
-1.078, -0.613, 2.928, 0.000, 0.996, 0.953
-0.992, -0.613, 2.924, 0.000, 0.996, 0.949
-0.745, -0.502, 2.395, 0.000, 0.996, 0.418
-0.809, -0.599, 2.860, 0.000, 0.996, 0.887
-0.572, -0.469, 2.239, 0.000, 0.996, 0.262
-0.642, -0.589, 2.813, 0.000, 0.996, 0.836
-0.569, -0.591, 2.822, 0.000, 0.996, 0.848
-0.489, -0.585, 2.793, 0.000, 0.996, 0.816
-0.413, -0.582, 2.776, 0.000, 0.996, 0.801
-0.335, -0.573, 2.737, 0.000, 0.996, 0.762
-0.266, -0.577, 2.754, 0.000, 0.996, 0.777
-0.193, -0.572, 2.731, 0.000, 0.996, 0.754
-0.121, -0.566, 2.700, 0.000, 0.996, 0.723
-0.051, -0.551, 2.630, 0.000, 0.996, 0.652
0.017, -0.554, 2.642, 0.000, 0.996, 0.664
0.074, -0.486, 2.318, 0.000, 0.996, 0.340
0.132, -0.478, 2.280, 0.000, 0.996, 0.301
0.191, -0.479, 2.287, 0.000, 0.996, 0.309
0.284, -0.543, 2.593, 0.000, 0.996, 0.617
0.352, -0.544, 2.595, 0.000, 0.996, 0.617
0.419, -0.543, 2.592, 0.000, 0.996, 0.613
0.484, -0.539, 2.574, 0.000, 0.996, 0.598
0.549, -0.535, 2.555, 0.000, 0.996, 0.578
0.609, -0.527, 2.518, 0.000, 0.996, 0.539
0.685, -0.533, 2.543, 0.000, 0.996, 0.566
0.747, -0.527, 2.516, 0.000, 0.996, 0.539
0.829, -0.534, 2.551, 0.000, 0.996, 0.574
0.892, -0.529, 2.523, 0.000, 0.996, 0.547
0.975, -0.533, 2.546, 0.000, 0.996, 0.570
1.035, -0.526, 2.510, 0.000, 0.996, 0.531
1.103, -0.522, 2.491, 0.000, 0.996, 0.512
1.189, -0.525, 2.508, 0.000, 0.996, 0.531
1.257, -0.521, 2.485, 0.000, 0.996, 0.508
1.353, -0.527, 2.514, 0.000, 0.996, 0.535
-1.728, -0.609, 3.114, 0.000, 0.848, 0.996
-1.588, -0.595, 3.042, 0.000, 0.922, 0.996
-1.486, -0.594, 3.034, 0.000, 0.930, 0.996
-1.393, -0.595, 3.040, 0.000, 0.922, 0.996
-1.291, -0.591, 3.019, 0.000, 0.941, 0.996
-1.188, -0.585, 2.989, 0.000, 0.973, 0.996
-1.086, -0.577, 2.950, 0.000, 0.996, 0.977
-1.002, -0.578, 2.953, 0.000, 0.996, 0.980
-0.741, -0.466, 2.384, 0.000, 0.996, 0.406
-0.814, -0.562, 2.875, 0.000, 0.996, 0.898
-0.576, -0.441, 2.255, 0.000, 0.996, 0.277
-0.656, -0.562, 2.873, 0.000, 0.996, 0.898
-0.572, -0.556, 2.841, 0.000, 0.996, 0.867
-0.485, -0.542, 2.770, 0.000, 0.996, 0.793
-0.419, -0.552, 2.821, 0.000, 0.996, 0.844
-0.340, -0.543, 2.776, 0.000, 0.996, 0.801
-0.266, -0.540, 2.758, 0.000, 0.996, 0.781
-0.192, -0.533, 2.723, 0.000, 0.996, 0.746
-0.122, -0.532, 2.719, 0.000, 0.996, 0.742
-0.052, -0.526, 2.691, 0.000, 0.996, 0.715
0.017, -0.512, 2.620, 0.000, 0.996, 0.645
0.074, -0.450, 2.302, 0.000, 0.996, 0.324
0.132, -0.447, 2.288, 0.000, 0.996, 0.309
0.189, -0.441, 2.256, 0.000, 0.996, 0.277
0.286, -0.512, 2.615, 0.000, 0.996, 0.637
0.350, -0.506, 2.584, 0.000, 0.996, 0.605
0.421, -0.510, 2.605, 0.000, 0.996, 0.629
0.482, -0.501, 2.563, 0.000, 0.996, 0.586
0.553, -0.503, 2.574, 0.000, 0.996, 0.598
0.612, -0.495, 2.529, 0.000, 0.996, 0.551
0.689, -0.501, 2.560, 0.000, 0.996, 0.582
0.752, -0.495, 2.532, 0.000, 0.996, 0.555
0.821, -0.494, 2.525, 0.000, 0.996, 0.547
0.896, -0.495, 2.532, 0.000, 0.996, 0.555
0.961, -0.491, 2.511, 0.000, 0.996, 0.535
1.029, -0.488, 2.494, 0.000, 0.996, 0.516
1.115, -0.493, 2.519, 0.000, 0.996, 0.543
1.193, -0.492, 2.517, 0.000, 0.996, 0.539
1.276, -0.494, 2.524, 0.000, 0.996, 0.547
1.369, -0.497, 2.542, 0.000, 0.996, 0.566
-1.712, -0.561, 3.085, 0.000, 0.879, 0.996
-1.625, -0.566, 3.114, 0.000, 0.848, 0.996
-1.500, -0.557, 3.063, 0.000, 0.898, 0.996
-1.388, -0.551, 3.029, 0.000, 0.934, 0.996
-1.298, -0.552, 3.035, 0.000, 0.926, 0.996
-1.195, -0.546, 3.005, 0.000, 0.957, 0.996
-1.096, -0.541, 2.976, 0.000, 0.988, 0.996
-1.004, -0.538, 2.959, 0.000, 0.996, 0.984
-0.738, -0.432, 2.374, 0.000, 0.996, 0.395
-0.821, -0.527, 2.901, 0.000, 0.996, 0.926
-0.578, -0.411, 2.263, 0.000, 0.996, 0.285
-0.649, -0.517, 2.841, 0.000, 0.996, 0.867
-0.575, -0.519, 2.853, 0.000, 0.996, 0.879
-0.489, -0.508, 2.795, 0.000, 0.996, 0.820
-0.413, -0.505, 2.779, 0.000, 0.996, 0.805
-0.341, -0.506, 2.781, 0.000, 0.996, 0.805
-0.269, -0.506, 2.785, 0.000, 0.996, 0.809
-0.192, -0.495, 2.720, 0.000, 0.996, 0.742
-0.122, -0.494, 2.717, 0.000, 0.996, 0.742
-0.051, -0.485, 2.668, 0.000, 0.996, 0.691
0.017, -0.480, 2.641, 0.000, 0.996, 0.664
0.074, -0.421, 2.313, 0.000, 0.996, 0.336
0.132, -0.416, 2.290, 0.000, 0.996, 0.312
0.190, -0.412, 2.268, 0.000, 0.996, 0.289
0.284, -0.472, 2.597, 0.000, 0.996, 0.621
0.353, -0.474, 2.608, 0.000, 0.996, 0.633
0.417, -0.468, 2.575, 0.000, 0.996, 0.598
0.488, -0.471, 2.592, 0.000, 0.996, 0.613
0.555, -0.470, 2.584, 0.000, 0.996, 0.605
0.619, -0.465, 2.560, 0.000, 0.996, 0.582
0.682, -0.461, 2.534, 0.000, 0.996, 0.559
0.756, -0.463, 2.545, 0.000, 0.996, 0.566
0.825, -0.461, 2.537, 0.000, 0.996, 0.559
0.894, -0.459, 2.527, 0.000, 0.996, 0.551
0.964, -0.458, 2.518, 0.000, 0.996, 0.539
1.038, -0.457, 2.516, 0.000, 0.996, 0.539
1.116, -0.458, 2.519, 0.000, 0.996, 0.543
1.183, -0.454, 2.496, 0.000, 0.996, 0.520
1.267, -0.455, 2.505, 0.000, 0.996, 0.527
1.352, -0.457, 2.511, 0.000, 0.996, 0.535
-1.728, -0.523, 3.114, 0.000, 0.848, 0.996
-1.598, -0.515, 3.063, 0.000, 0.898, 0.996
-1.490, -0.512, 3.043, 0.000, 0.918, 0.996
-1.392, -0.511, 3.038, 0.000, 0.926, 0.996
-1.274, -0.501, 2.980, 0.000, 0.984, 0.996
-1.175, -0.497, 2.955, 0.000, 0.996, 0.980
-1.085, -0.495, 2.947, 0.000, 0.996, 0.973
-0.999, -0.495, 2.944, 0.000, 0.996, 0.969
-0.745, -0.403, 2.396, 0.000, 0.996, 0.418
-0.818, -0.486, 2.889, 0.000, 0.996, 0.914
-0.574, -0.378, 2.248, 0.000, 0.996, 0.270
-0.651, -0.479, 2.849, 0.000, 0.996, 0.875
-0.571, -0.477, 2.835, 0.000, 0.996, 0.859
-0.492, -0.473, 2.813, 0.000, 0.996, 0.836
-0.416, -0.471, 2.801, 0.000, 0.996, 0.824
-0.344, -0.472, 2.805, 0.000, 0.996, 0.828
-0.267, -0.464, 2.762, 0.000, 0.996, 0.785
-0.192, -0.456, 2.715, 0.000, 0.996, 0.738
-0.121, -0.454, 2.701, 0.000, 0.996, 0.727
-0.051, -0.450, 2.675, 0.000, 0.996, 0.699
0.017, -0.446, 2.656, 0.000, 0.996, 0.680
0.073, -0.385, 2.289, 0.000, 0.996, 0.309
0.132, -0.383, 2.279, 0.000, 0.996, 0.301
0.190, -0.383, 2.278, 0.000, 0.996, 0.297
0.286, -0.440, 2.615, 0.000, 0.996, 0.637
0.354, -0.439, 2.614, 0.000, 0.996, 0.637
0.416, -0.433, 2.575, 0.000, 0.996, 0.598
0.484, -0.432, 2.572, 0.000, 0.996, 0.594
0.553, -0.433, 2.575, 0.000, 0.996, 0.598
0.610, -0.424, 2.521, 0.000, 0.996, 0.543
0.685, -0.428, 2.544, 0.000, 0.996, 0.566
0.750, -0.425, 2.527, 0.000, 0.996, 0.551
0.823, -0.426, 2.533, 0.000, 0.996, 0.555
0.894, -0.425, 2.528, 0.000, 0.996, 0.551
0.974, -0.428, 2.544, 0.000, 0.996, 0.566
1.042, -0.424, 2.525, 0.000, 0.996, 0.547
1.115, -0.423, 2.518, 0.000, 0.996, 0.539
1.187, -0.421, 2.505, 0.000, 0.996, 0.527
1.264, -0.420, 2.499, 0.000, 0.996, 0.523
1.342, -0.419, 2.493, 0.000, 0.996, 0.516
-1.720, -0.479, 3.099, 0.000, 0.863, 0.996
-1.609, -0.476, 3.083, 0.000, 0.879, 0.996
-1.492, -0.471, 3.047, 0.000, 0.914, 0.996
-1.403, -0.473, 3.061, 0.000, 0.902, 0.996
-1.295, -0.468, 3.029, 0.000, 0.934, 0.996
-1.205, -0.468, 3.029, 0.000, 0.934, 0.996
-1.100, -0.461, 2.988, 0.000, 0.973, 0.996
-1.010, -0.459, 2.976, 0.000, 0.988, 0.996
-0.741, -0.368, 2.382, 0.000, 0.996, 0.402
-0.813, -0.444, 2.873, 0.000, 0.996, 0.898
-0.582, -0.352, 2.278, 0.000, 0.996, 0.301
-0.648, -0.439, 2.840, 0.000, 0.996, 0.863
-0.574, -0.440, 2.847, 0.000, 0.996, 0.871
-0.496, -0.438, 2.837, 0.000, 0.996, 0.863
-0.408, -0.424, 2.745, 0.000, 0.996, 0.770
-0.334, -0.422, 2.730, 0.000, 0.996, 0.754
-0.267, -0.427, 2.764, 0.000, 0.996, 0.789
-0.193, -0.421, 2.725, 0.000, 0.996, 0.750
-0.121, -0.415, 2.688, 0.000, 0.996, 0.711
-0.051, -0.412, 2.669, 0.000, 0.996, 0.691
0.017, -0.410, 2.655, 0.000, 0.996, 0.680
0.074, -0.355, 2.298, 0.000, 0.996, 0.320
0.132, -0.351, 2.276, 0.000, 0.996, 0.297
0.192, -0.354, 2.292, 0.000, 0.996, 0.312
0.285, -0.402, 2.602, 0.000, 0.996, 0.625
0.347, -0.396, 2.564, 0.000, 0.996, 0.586
0.420, -0.401, 2.596, 0.000, 0.996, 0.617
0.486, -0.398, 2.580, 0.000, 0.996, 0.602
0.552, -0.397, 2.568, 0.000, 0.996, 0.590
0.616, -0.393, 2.547, 0.000, 0.996, 0.570
0.687, -0.394, 2.552, 0.000, 0.996, 0.574
0.761, -0.396, 2.563, 0.000, 0.996, 0.586
0.821, -0.390, 2.526, 0.000, 0.996, 0.547
0.890, -0.389, 2.516, 0.000, 0.996, 0.539
0.960, -0.387, 2.508, 0.000, 0.996, 0.531
1.046, -0.392, 2.536, 0.000, 0.996, 0.559
1.096, -0.382, 2.475, 0.000, 0.996, 0.496
1.195, -0.389, 2.521, 0.000, 0.996, 0.543
1.253, -0.383, 2.478, 0.000, 0.996, 0.500
1.351, -0.387, 2.509, 0.000, 0.996, 0.531
-1.747, -0.443, 3.148, 0.000, 0.812, 0.996
-1.615, -0.436, 3.094, 0.000, 0.867, 0.996
-1.510, -0.434, 3.084, 0.000, 0.879, 0.996
-1.383, -0.425, 3.018, 0.000, 0.945, 0.996
-1.283, -0.422, 3.001, 0.000, 0.961, 0.996
-1.202, -0.426, 3.023, 0.000, 0.941, 0.996
-1.097, -0.420, 2.979, 0.000, 0.984, 0.996
-1.004, -0.416, 2.958, 0.000, 0.996, 0.984
-0.734, -0.332, 2.361, 0.000, 0.996, 0.383
-0.828, -0.412, 2.925, 0.000, 0.996, 0.949
-0.571, -0.315, 2.235, 0.000, 0.996, 0.254
-0.654, -0.403, 2.864, 0.000, 0.996, 0.887
-0.574, -0.401, 2.849, 0.000, 0.996, 0.875
-0.493, -0.397, 2.817, 0.000, 0.996, 0.840
-0.417, -0.395, 2.805, 0.000, 0.996, 0.828
-0.337, -0.388, 2.752, 0.000, 0.996, 0.777
-0.264, -0.385, 2.735, 0.000, 0.996, 0.758
-0.193, -0.385, 2.734, 0.000, 0.996, 0.758
-0.096, -0.301, 2.140, 0.000, 0.996, 0.160
-0.052, -0.379, 2.689, 0.000, 0.996, 0.715
0.017, -0.366, 2.600, 0.000, 0.996, 0.621
0.074, -0.326, 2.317, 0.000, 0.996, 0.340
0.132, -0.323, 2.291, 0.000, 0.996, 0.312
0.191, -0.322, 2.283, 0.000, 0.996, 0.305
0.287, -0.369, 2.623, 0.000, 0.996, 0.648
0.353, -0.366, 2.601, 0.000, 0.996, 0.625
0.421, -0.366, 2.601, 0.000, 0.996, 0.625
0.483, -0.362, 2.568, 0.000, 0.996, 0.590
0.549, -0.360, 2.556, 0.000, 0.996, 0.578
0.615, -0.358, 2.544, 0.000, 0.996, 0.566
0.691, -0.361, 2.565, 0.000, 0.996, 0.590
0.746, -0.354, 2.513, 0.000, 0.996, 0.535
0.830, -0.360, 2.554, 0.000, 0.996, 0.578
0.894, -0.356, 2.527, 0.000, 0.996, 0.551
0.963, -0.354, 2.516, 0.000, 0.996, 0.539
1.043, -0.356, 2.528, 0.000, 0.996, 0.551
1.104, -0.351, 2.493, 0.000, 0.996, 0.516
1.198, -0.356, 2.529, 0.000, 0.996, 0.551
1.260, -0.351, 2.492, 0.000, 0.996, 0.516
1.333, -0.349, 2.475, 0.000, 0.996, 0.496
-1.732, -0.397, 3.121, 0.000, 0.840, 0.996
-1.618, -0.394, 3.100, 0.000, 0.863, 0.996
-1.505, -0.391, 3.072, 0.000, 0.891, 0.996
-1.393, -0.387, 3.039, 0.000, 0.922, 0.996
-1.288, -0.383, 3.013, 0.000, 0.949, 0.996
-1.191, -0.381, 2.995, 0.000, 0.969, 0.996
-1.094, -0.378, 2.970, 0.000, 0.992, 0.996
-0.996, -0.373, 2.935, 0.000, 0.996, 0.961
-0.735, -0.301, 2.363, 0.000, 0.996, 0.383
-0.825, -0.371, 2.914, 0.000, 0.996, 0.941
-0.575, -0.286, 2.249, 0.000, 0.996, 0.270
-0.652, -0.363, 2.855, 0.000, 0.996, 0.879
-0.570, -0.360, 2.829, 0.000, 0.996, 0.855
-0.495, -0.360, 2.829, 0.000, 0.996, 0.855
-0.413, -0.354, 2.780, 0.000, 0.996, 0.805
-0.339, -0.352, 2.765, 0.000, 0.996, 0.789
-0.269, -0.354, 2.783, 0.000, 0.996, 0.809
-0.193, -0.347, 2.730, 0.000, 0.996, 0.754
-0.121, -0.342, 2.688, 0.000, 0.996, 0.711
-0.052, -0.343, 2.696, 0.000, 0.996, 0.719
0.017, -0.339, 2.662, 0.000, 0.996, 0.688
0.073, -0.291, 2.289, 0.000, 0.996, 0.309
0.132, -0.291, 2.289, 0.000, 0.996, 0.309
0.189, -0.288, 2.260, 0.000, 0.996, 0.281
0.284, -0.330, 2.590, 0.000, 0.996, 0.613
0.350, -0.328, 2.579, 0.000, 0.996, 0.602
0.417, -0.328, 2.579, 0.000, 0.996, 0.602
0.490, -0.332, 2.606, 0.000, 0.996, 0.629
0.555, -0.329, 2.583, 0.000, 0.996, 0.605
0.621, -0.326, 2.566, 0.000, 0.996, 0.590
0.696, -0.329, 2.587, 0.000, 0.996, 0.609
0.754, -0.323, 2.541, 0.000, 0.996, 0.562
0.825, -0.323, 2.538, 0.000, 0.996, 0.562
0.887, -0.319, 2.509, 0.000, 0.996, 0.531
0.961, -0.319, 2.511, 0.000, 0.996, 0.535
1.035, -0.319, 2.509, 0.000, 0.996, 0.531
1.115, -0.320, 2.517, 0.000, 0.996, 0.539
1.188, -0.319, 2.507, 0.000, 0.996, 0.531
1.252, -0.315, 2.475, 0.000, 0.996, 0.496
1.322, -0.312, 2.455, 0.000, 0.996, 0.477
-1.720, -0.352, 3.099, 0.000, 0.863, 0.996
-1.608, -0.350, 3.082, 0.000, 0.879, 0.996
-1.509, -0.350, 3.080, 0.000, 0.883, 0.996
-1.407, -0.349, 3.071, 0.000, 0.891, 0.996
-1.292, -0.344, 3.021, 0.000, 0.941, 0.996
-1.193, -0.341, 3.001, 0.000, 0.961, 0.996
-1.101, -0.340, 2.990, 0.000, 0.973, 0.996
-1.001, -0.336, 2.951, 0.000, 0.996, 0.977
-0.734, -0.268, 2.359, 0.000, 0.996, 0.379
-0.833, -0.335, 2.944, 0.000, 0.996, 0.969
-0.577, -0.257, 2.258, 0.000, 0.996, 0.277
-0.648, -0.323, 2.836, 0.000, 0.996, 0.859
-0.568, -0.321, 2.820, 0.000, 0.996, 0.844
-0.488, -0.317, 2.789, 0.000, 0.996, 0.812
-0.417, -0.319, 2.803, 0.000, 0.996, 0.828
-0.338, -0.314, 2.764, 0.000, 0.996, 0.789
-0.266, -0.314, 2.760, 0.000, 0.996, 0.785
-0.197, -0.317, 2.783, 0.000, 0.996, 0.809
-0.097, -0.246, 2.161, 0.000, 0.996, 0.180
-0.052, -0.306, 2.693, 0.000, 0.996, 0.719
0.017, -0.300, 2.636, 0.000, 0.996, 0.660
0.073, -0.259, 2.278, 0.000, 0.996, 0.297
0.133, -0.262, 2.302, 0.000, 0.996, 0.324
0.191, -0.259, 2.280, 0.000, 0.996, 0.301
0.286, -0.298, 2.616, 0.000, 0.996, 0.641
0.354, -0.297, 2.613, 0.000, 0.996, 0.637
0.419, -0.295, 2.590, 0.000, 0.996, 0.613
0.488, -0.295, 2.596, 0.000, 0.996, 0.617
0.549, -0.290, 2.554, 0.000, 0.996, 0.578
0.615, -0.289, 2.544, 0.000, 0.996, 0.566
0.691, -0.292, 2.567, 0.000, 0.996, 0.590
0.755, -0.289, 2.541, 0.000, 0.996, 0.562
0.828, -0.290, 2.548, 0.000, 0.996, 0.570
0.899, -0.289, 2.542, 0.000, 0.996, 0.566
0.966, -0.287, 2.523, 0.000, 0.996, 0.547
1.039, -0.286, 2.518, 0.000, 0.996, 0.539
1.099, -0.282, 2.482, 0.000, 0.996, 0.504
1.182, -0.284, 2.494, 0.000, 0.996, 0.516
1.250, -0.281, 2.471, 0.000, 0.996, 0.492
1.338, -0.283, 2.486, 0.000, 0.996, 0.508
-1.741, -0.314, 3.137, 0.000, 0.824, 0.996
-1.627, -0.313, 3.118, 0.000, 0.844, 0.996
-1.512, -0.309, 3.087, 0.000, 0.875, 0.996
-1.407, -0.308, 3.069, 0.000, 0.895, 0.996
-1.301, -0.305, 3.042, 0.000, 0.922, 0.996
-1.203, -0.303, 3.025, 0.000, 0.938, 0.996
-1.093, -0.298, 2.969, 0.000, 0.992, 0.996
-0.997, -0.295, 2.940, 0.000, 0.996, 0.965
-0.734, -0.237, 2.360, 0.000, 0.996, 0.383
-0.825, -0.292, 2.916, 0.000, 0.996, 0.941
-0.583, -0.229, 2.283, 0.000, 0.996, 0.305
-0.637, -0.280, 2.792, 0.000, 0.996, 0.816
-0.566, -0.282, 2.811, 0.000, 0.996, 0.836
-0.489, -0.280, 2.796, 0.000, 0.996, 0.820
-0.416, -0.281, 2.799, 0.000, 0.996, 0.824
-0.339, -0.277, 2.765, 0.000, 0.996, 0.789
-0.266, -0.276, 2.752, 0.000, 0.996, 0.777
-0.193, -0.274, 2.735, 0.000, 0.996, 0.758
-0.102, -0.228, 2.271, 0.000, 0.996, 0.293
-0.052, -0.271, 2.703, 0.000, 0.996, 0.727
0.017, -0.267, 2.664, 0.000, 0.996, 0.688
0.073, -0.230, 2.291, 0.000, 0.996, 0.312
0.131, -0.228, 2.270, 0.000, 0.996, 0.293
0.190, -0.228, 2.273, 0.000, 0.996, 0.293
0.284, -0.260, 2.591, 0.000, 0.996, 0.613
0.352, -0.261, 2.600, 0.000, 0.996, 0.621
0.421, -0.261, 2.600, 0.000, 0.996, 0.625
0.477, -0.254, 2.534, 0.000, 0.996, 0.559
0.550, -0.257, 2.561, 0.000, 0.996, 0.582
0.616, -0.255, 2.546, 0.000, 0.996, 0.570
0.678, -0.253, 2.520, 0.000, 0.996, 0.543
0.753, -0.254, 2.537, 0.000, 0.996, 0.559
0.820, -0.253, 2.522, 0.000, 0.996, 0.543
0.889, -0.252, 2.514, 0.000, 0.996, 0.535
0.956, -0.250, 2.496, 0.000, 0.996, 0.520
1.033, -0.251, 2.505, 0.000, 0.996, 0.527
1.100, -0.249, 2.484, 0.000, 0.996, 0.508
1.190, -0.252, 2.511, 0.000, 0.996, 0.535
1.270, -0.252, 2.510, 0.000, 0.996, 0.531
1.340, -0.250, 2.489, 0.000, 0.996, 0.512
-1.743, -0.273, 3.140, 0.000, 0.820, 0.996
-1.603, -0.267, 3.071, 0.000, 0.891, 0.996
-1.504, -0.267, 3.072, 0.000, 0.891, 0.996
-1.390, -0.263, 3.033, 0.000, 0.930, 0.996
-1.297, -0.263, 3.032, 0.000, 0.930, 0.996
-1.200, -0.262, 3.017, 0.000, 0.945, 0.996
-1.103, -0.260, 2.996, 0.000, 0.965, 0.996
-0.796, -0.204, 2.345, 0.000, 0.996, 0.367
-0.717, -0.200, 2.307, 0.000, 0.996, 0.328
-0.677, -0.208, 2.392, 0.000, 0.996, 0.414
-0.585, -0.199, 2.289, 0.000, 0.996, 0.309
-0.535, -0.203, 2.342, 0.000, 0.996, 0.363
-0.480, -0.207, 2.380, 0.000, 0.996, 0.402
-0.401, -0.199, 2.291, 0.000, 0.996, 0.312
-0.336, -0.196, 2.259, 0.000, 0.996, 0.281
-0.273, -0.193, 2.227, 0.000, 0.996, 0.246
-0.219, -0.197, 2.265, 0.000, 0.996, 0.285
-0.160, -0.197, 2.269, 0.000, 0.996, 0.289
-0.098, -0.189, 2.175, 0.000, 0.996, 0.195
-0.043, -0.194, 2.240, 0.000, 0.996, 0.262
0.015, -0.200, 2.308, 0.000, 0.996, 0.328
0.073, -0.198, 2.279, 0.000, 0.996, 0.301
0.131, -0.197, 2.273, 0.000, 0.996, 0.293
0.186, -0.193, 2.226, 0.000, 0.996, 0.246
0.283, -0.224, 2.585, 0.000, 0.996, 0.609
0.349, -0.224, 2.576, 0.000, 0.996, 0.598
0.413, -0.222, 2.552, 0.000, 0.996, 0.574
0.468, -0.216, 2.490, 0.000, 0.996, 0.512
0.539, -0.218, 2.507, 0.000, 0.996, 0.531
0.538, -0.193, 2.223, 0.000, 0.996, 0.242
0.684, -0.221, 2.542, 0.000, 0.996, 0.566
0.627, -0.183, 2.113, 0.000, 0.996, 0.133
0.816, -0.218, 2.511, 0.000, 0.996, 0.535
0.888, -0.218, 2.510, 0.000, 0.996, 0.531
0.963, -0.218, 2.514, 0.000, 0.996, 0.535
1.032, -0.217, 2.501, 0.000, 0.996, 0.523
1.110, -0.218, 2.505, 0.000, 0.996, 0.527
1.190, -0.218, 2.512, 0.000, 0.996, 0.535
1.249, -0.214, 2.470, 0.000, 0.996, 0.492
1.326, -0.214, 2.463, 0.000, 0.996, 0.484
-1.742, -0.230, 3.138, 0.000, 0.824, 0.996
-1.621, -0.228, 3.106, 0.000, 0.855, 0.996
-1.516, -0.227, 3.096, 0.000, 0.867, 0.996
-1.405, -0.225, 3.065, 0.000, 0.898, 0.996
-1.295, -0.222, 3.028, 0.000, 0.934, 0.996
-1.188, -0.219, 2.987, 0.000, 0.977, 0.996
-1.102, -0.220, 2.992, 0.000, 0.969, 0.996
-0.813, -0.176, 2.397, 0.000, 0.996, 0.418
-0.741, -0.175, 2.384, 0.000, 0.996, 0.406
-0.821, -0.213, 2.900, 0.000, 0.996, 0.926
-0.582, -0.167, 2.277, 0.000, 0.996, 0.297
-0.648, -0.208, 2.840, 0.000, 0.996, 0.863
-0.573, -0.209, 2.844, 0.000, 0.996, 0.867
-0.490, -0.206, 2.802, 0.000, 0.996, 0.828
-0.416, -0.205, 2.797, 0.000, 0.996, 0.820
-0.332, -0.199, 2.710, 0.000, 0.996, 0.734
-0.259, -0.197, 2.686, 0.000, 0.996, 0.711
-0.195, -0.202, 2.757, 0.000, 0.996, 0.781
-0.119, -0.194, 2.643, 0.000, 0.996, 0.668
-0.052, -0.199, 2.706, 0.000, 0.996, 0.730
0.017, -0.195, 2.651, 0.000, 0.996, 0.676
0.075, -0.171, 2.329, 0.000, 0.996, 0.352
0.133, -0.169, 2.303, 0.000, 0.996, 0.324
0.190, -0.167, 2.272, 0.000, 0.996, 0.293
0.287, -0.193, 2.624, 0.000, 0.996, 0.648
0.351, -0.190, 2.587, 0.000, 0.996, 0.609
0.422, -0.191, 2.609, 0.000, 0.996, 0.633
0.485, -0.189, 2.577, 0.000, 0.996, 0.602
0.550, -0.188, 2.558, 0.000, 0.996, 0.582
0.616, -0.187, 2.547, 0.000, 0.996, 0.570
0.685, -0.187, 2.545, 0.000, 0.996, 0.566
0.766, -0.189, 2.579, 0.000, 0.996, 0.602
0.825, -0.186, 2.537, 0.000, 0.996, 0.559
0.881, -0.183, 2.492, 0.000, 0.996, 0.516
0.958, -0.184, 2.504, 0.000, 0.996, 0.527
1.021, -0.182, 2.474, 0.000, 0.996, 0.496
1.102, -0.183, 2.488, 0.000, 0.996, 0.512
1.175, -0.182, 2.478, 0.000, 0.996, 0.500
1.269, -0.184, 2.508, 0.000, 0.996, 0.531
1.343, -0.183, 2.494, 0.000, 0.996, 0.516
-1.723, -0.186, 3.104, 0.000, 0.855, 0.996
-1.624, -0.187, 3.112, 0.000, 0.852, 0.996
-1.496, -0.183, 3.055, 0.000, 0.906, 0.996
-1.395, -0.183, 3.044, 0.000, 0.918, 0.996
-1.305, -0.183, 3.051, 0.000, 0.910, 0.996
-1.200, -0.181, 3.018, 0.000, 0.945, 0.996
-1.092, -0.178, 2.966, 0.000, 0.996, 0.992
-0.999, -0.177, 2.944, 0.000, 0.996, 0.969
-0.741, -0.143, 2.384, 0.000, 0.996, 0.406
-0.835, -0.177, 2.950, 0.000, 0.996, 0.977
-0.576, -0.135, 2.254, 0.000, 0.996, 0.273
-0.636, -0.167, 2.784, 0.000, 0.996, 0.809
-0.578, -0.172, 2.868, 0.000, 0.996, 0.895
-0.492, -0.169, 2.811, 0.000, 0.996, 0.836
-0.416, -0.168, 2.798, 0.000, 0.996, 0.824
-0.332, -0.163, 2.714, 0.000, 0.996, 0.738
-0.261, -0.162, 2.704, 0.000, 0.996, 0.727
-0.194, -0.165, 2.752, 0.000, 0.996, 0.777
-0.121, -0.161, 2.687, 0.000, 0.996, 0.711
-0.052, -0.163, 2.713, 0.000, 0.996, 0.738
0.017, -0.160, 2.668, 0.000, 0.996, 0.691
0.074, -0.138, 2.291, 0.000, 0.996, 0.312
0.132, -0.137, 2.276, 0.000, 0.996, 0.297
0.188, -0.135, 2.244, 0.000, 0.996, 0.266
0.282, -0.155, 2.578, 0.000, 0.996, 0.602
0.354, -0.157, 2.611, 0.000, 0.996, 0.633
0.423, -0.157, 2.615, 0.000, 0.996, 0.641
0.480, -0.153, 2.551, 0.000, 0.996, 0.574
0.556, -0.155, 2.588, 0.000, 0.996, 0.609
0.615, -0.153, 2.544, 0.000, 0.996, 0.566
0.681, -0.152, 2.529, 0.000, 0.996, 0.551
0.745, -0.151, 2.508, 0.000, 0.996, 0.531
0.824, -0.152, 2.536, 0.000, 0.996, 0.559
0.886, -0.150, 2.505, 0.000, 0.996, 0.527
0.957, -0.150, 2.499, 0.000, 0.996, 0.523
1.035, -0.151, 2.509, 0.000, 0.996, 0.531
1.097, -0.149, 2.477, 0.000, 0.996, 0.500
1.181, -0.150, 2.492, 0.000, 0.996, 0.516
1.256, -0.149, 2.483, 0.000, 0.996, 0.504
1.325, -0.148, 2.460, 0.000, 0.996, 0.484
-1.723, -0.145, 3.104, 0.000, 0.859, 0.996
-1.618, -0.145, 3.099, 0.000, 0.863, 0.996
-1.498, -0.143, 3.058, 0.000, 0.902, 0.996
-1.408, -0.143, 3.072, 0.000, 0.891, 0.996
-1.288, -0.141, 3.011, 0.000, 0.953, 0.996
-1.199, -0.141, 3.016, 0.000, 0.945, 0.996
-1.098, -0.139, 2.983, 0.000, 0.980, 0.996
-1.006, -0.138, 2.964, 0.000, 0.996, 0.988
-0.754, -0.113, 2.425, 0.000, 0.996, 0.445
-0.815, -0.134, 2.881, 0.000, 0.996, 0.906
-0.588, -0.107, 2.303, 0.000, 0.996, 0.324
-0.657, -0.134, 2.877, 0.000, 0.996, 0.902
-0.571, -0.132, 2.832, 0.000, 0.996, 0.855
-0.489, -0.130, 2.794, 0.000, 0.996, 0.820
-0.414, -0.130, 2.785, 0.000, 0.996, 0.809
-0.327, -0.124, 2.667, 0.000, 0.996, 0.691
-0.260, -0.126, 2.697, 0.000, 0.996, 0.723
-0.194, -0.128, 2.746, 0.000, 0.996, 0.770
-0.122, -0.127, 2.720, 0.000, 0.996, 0.742
-0.053, -0.128, 2.737, 0.000, 0.996, 0.762
0.017, -0.125, 2.677, 0.000, 0.996, 0.699
0.073, -0.106, 2.280, 0.000, 0.996, 0.301
0.132, -0.107, 2.283, 0.000, 0.996, 0.305
0.190, -0.106, 2.277, 0.000, 0.996, 0.297
0.285, -0.122, 2.608, 0.000, 0.996, 0.633
0.356, -0.123, 2.629, 0.000, 0.996, 0.652
0.415, -0.120, 2.563, 0.000, 0.996, 0.586
0.481, -0.119, 2.555, 0.000, 0.996, 0.578
0.551, -0.120, 2.562, 0.000, 0.996, 0.586
0.611, -0.118, 2.526, 0.000, 0.996, 0.547
0.681, -0.118, 2.528, 0.000, 0.996, 0.551
0.748, -0.118, 2.518, 0.000, 0.996, 0.539
0.812, -0.117, 2.497, 0.000, 0.996, 0.520
0.890, -0.117, 2.515, 0.000, 0.996, 0.539
0.965, -0.118, 2.522, 0.000, 0.996, 0.543
1.012, -0.114, 2.453, 0.000, 0.996, 0.477
1.106, -0.117, 2.498, 0.000, 0.996, 0.520
1.178, -0.116, 2.486, 0.000, 0.996, 0.508
1.263, -0.117, 2.498, 0.000, 0.996, 0.520
1.337, -0.116, 2.484, 0.000, 0.996, 0.508
-1.742, -0.105, 3.139, 0.000, 0.824, 0.996
-1.632, -0.104, 3.127, 0.000, 0.836, 0.996
-1.507, -0.103, 3.078, 0.000, 0.883, 0.996
-1.403, -0.102, 3.061, 0.000, 0.902, 0.996
-1.291, -0.101, 3.020, 0.000, 0.941, 0.996
-1.200, -0.101, 3.019, 0.000, 0.941, 0.996
-1.096, -0.099, 2.976, 0.000, 0.988, 0.996
-1.009, -0.099, 2.975, 0.000, 0.988, 0.996
-0.890, -0.095, 2.862, 0.000, 0.996, 0.887
-0.821, -0.097, 2.902, 0.000, 0.996, 0.926
-0.587, -0.077, 2.298, 0.000, 0.996, 0.320
-0.653, -0.095, 2.859, 0.000, 0.996, 0.883
-0.573, -0.095, 2.843, 0.000, 0.996, 0.867
-0.489, -0.093, 2.795, 0.000, 0.996, 0.820
-0.418, -0.094, 2.811, 0.000, 0.996, 0.836
-0.333, -0.091, 2.718, 0.000, 0.996, 0.742
-0.257, -0.089, 2.661, 0.000, 0.996, 0.684
-0.194, -0.091, 2.744, 0.000, 0.996, 0.770
-0.121, -0.090, 2.695, 0.000, 0.996, 0.719
-0.052, -0.089, 2.683, 0.000, 0.996, 0.707
0.017, -0.088, 2.640, 0.000, 0.996, 0.664
0.074, -0.077, 2.311, 0.000, 0.996, 0.332
0.132, -0.076, 2.280, 0.000, 0.996, 0.301
0.188, -0.075, 2.252, 0.000, 0.996, 0.273
0.287, -0.087, 2.625, 0.000, 0.996, 0.648
0.349, -0.086, 2.576, 0.000, 0.996, 0.598
0.414, -0.085, 2.561, 0.000, 0.996, 0.586
0.483, -0.086, 2.569, 0.000, 0.996, 0.590
0.549, -0.085, 2.557, 0.000, 0.996, 0.578
0.620, -0.085, 2.561, 0.000, 0.996, 0.586
0.683, -0.084, 2.536, 0.000, 0.996, 0.559
0.757, -0.085, 2.549, 0.000, 0.996, 0.570
0.812, -0.083, 2.497, 0.000, 0.996, 0.520
0.885, -0.083, 2.503, 0.000, 0.996, 0.527
0.964, -0.084, 2.517, 0.000, 0.996, 0.539
1.031, -0.083, 2.500, 0.000, 0.996, 0.523
1.114, -0.084, 2.516, 0.000, 0.996, 0.539
1.183, -0.083, 2.495, 0.000, 0.996, 0.520
1.243, -0.082, 2.457, 0.000, 0.996, 0.480
1.333, -0.083, 2.476, 0.000, 0.996, 0.500
-1.731, -0.062, 3.118, 0.000, 0.844, 0.996
-1.625, -0.062, 3.114, 0.000, 0.848, 0.996
-1.480, -0.060, 3.022, 0.000, 0.941, 0.996
-1.405, -0.061, 3.066, 0.000, 0.895, 0.996
-1.295, -0.061, 3.029, 0.000, 0.934, 0.996
-1.207, -0.061, 3.035, 0.000, 0.926, 0.996
-1.103, -0.060, 2.996, 0.000, 0.965, 0.996
-1.014, -0.060, 2.988, 0.000, 0.977, 0.996
-0.904, -0.058, 2.909, 0.000, 0.996, 0.934
-0.827, -0.058, 2.923, 0.000, 0.996, 0.949
-0.582, -0.045, 2.276, 0.000, 0.996, 0.297
-0.660, -0.058, 2.891, 0.000, 0.996, 0.918
-0.578, -0.057, 2.869, 0.000, 0.996, 0.895
-0.487, -0.056, 2.785, 0.000, 0.996, 0.809
-0.420, -0.057, 2.827, 0.000, 0.996, 0.852
-0.335, -0.055, 2.731, 0.000, 0.996, 0.754
-0.262, -0.054, 2.716, 0.000, 0.996, 0.738
-0.194, -0.055, 2.751, 0.000, 0.996, 0.773
-0.121, -0.054, 2.702, 0.000, 0.996, 0.727
-0.053, -0.055, 2.743, 0.000, 0.996, 0.766
0.017, -0.054, 2.687, 0.000, 0.996, 0.711
0.073, -0.046, 2.287, 0.000, 0.996, 0.309
0.131, -0.045, 2.273, 0.000, 0.996, 0.293
0.190, -0.046, 2.278, 0.000, 0.996, 0.301
0.284, -0.052, 2.598, 0.000, 0.996, 0.621
0.350, -0.052, 2.585, 0.000, 0.996, 0.609
0.420, -0.052, 2.595, 0.000, 0.996, 0.617
0.486, -0.052, 2.582, 0.000, 0.996, 0.605
0.551, -0.051, 2.564, 0.000, 0.996, 0.586
0.619, -0.051, 2.560, 0.000, 0.996, 0.582
0.685, -0.051, 2.545, 0.000, 0.996, 0.566
0.744, -0.050, 2.506, 0.000, 0.996, 0.527
0.820, -0.050, 2.523, 0.000, 0.996, 0.547
0.886, -0.050, 2.505, 0.000, 0.996, 0.527
0.956, -0.050, 2.498, 0.000, 0.996, 0.520
1.021, -0.049, 2.475, 0.000, 0.996, 0.496
1.092, -0.049, 2.465, 0.000, 0.996, 0.488
1.164, -0.049, 2.456, 0.000, 0.996, 0.477
1.239, -0.049, 2.450, 0.000, 0.996, 0.473
1.334, -0.050, 2.478, 0.000, 0.996, 0.500
-1.733, -0.021, 3.123, 0.000, 0.840, 0.996
-1.622, -0.021, 3.107, 0.000, 0.855, 0.996
-1.518, -0.021, 3.101, 0.000, 0.859, 0.996
-1.404, -0.020, 3.063, 0.000, 0.898, 0.996
-1.303, -0.020, 3.047, 0.000, 0.914, 0.996
-1.205, -0.020, 3.031, 0.000, 0.930, 0.996
-1.102, -0.020, 2.993, 0.000, 0.969, 0.996
-1.004, -0.020, 2.960, 0.000, 0.996, 0.984
-0.913, -0.020, 2.936, 0.000, 0.996, 0.961
-0.824, -0.019, 2.913, 0.000, 0.996, 0.938
-0.576, -0.015, 2.254, 0.000, 0.996, 0.273
-0.654, -0.019, 2.864, 0.000, 0.996, 0.891
-0.576, -0.019, 2.857, 0.000, 0.996, 0.883
-0.495, -0.019, 2.831, 0.000, 0.996, 0.855
-0.418, -0.019, 2.812, 0.000, 0.996, 0.836
-0.338, -0.018, 2.761, 0.000, 0.996, 0.785
-0.265, -0.018, 2.745, 0.000, 0.996, 0.770
-0.193, -0.018, 2.729, 0.000, 0.996, 0.754
-0.124, -0.018, 2.756, 0.000, 0.996, 0.781
-0.052, -0.018, 2.702, 0.000, 0.996, 0.727
0.017, -0.018, 2.664, 0.000, 0.996, 0.688
0.074, -0.015, 2.303, 0.000, 0.996, 0.324
0.132, -0.015, 2.290, 0.000, 0.996, 0.312
0.189, -0.015, 2.258, 0.000, 0.996, 0.277
0.285, -0.017, 2.607, 0.000, 0.996, 0.629
0.359, -0.018, 2.650, 0.000, 0.996, 0.672
0.417, -0.017, 2.575, 0.000, 0.996, 0.598
0.476, -0.017, 2.531, 0.000, 0.996, 0.555
0.545, -0.017, 2.536, 0.000, 0.996, 0.559
0.619, -0.017, 2.560, 0.000, 0.996, 0.582
0.693, -0.017, 2.576, 0.000, 0.996, 0.598
0.750, -0.017, 2.525, 0.000, 0.996, 0.547
0.810, -0.017, 2.492, 0.000, 0.996, 0.516
0.880, -0.017, 2.489, 0.000, 0.996, 0.512
0.950, -0.017, 2.481, 0.000, 0.996, 0.504
1.027, -0.017, 2.489, 0.000, 0.996, 0.512
1.110, -0.017, 2.506, 0.000, 0.996, 0.527
1.181, -0.017, 2.492, 0.000, 0.996, 0.516
1.239, -0.016, 2.450, 0.000, 0.996, 0.473
1.340, -0.017, 2.489, 0.000, 0.996, 0.512
-1.753, 0.021, 3.158, 0.000, 0.805, 0.996
-1.614, 0.021, 3.092, 0.000, 0.871, 0.996
-1.517, 0.021, 3.097, 0.000, 0.863, 0.996
-1.422, 0.021, 3.102, 0.000, 0.859, 0.996
-1.307, 0.020, 3.057, 0.000, 0.906, 0.996
-1.192, 0.020, 2.998, 0.000, 0.965, 0.996
-1.101, 0.020, 2.990, 0.000, 0.973, 0.996
-1.019, 0.020, 3.002, 0.000, 0.961, 0.996
-0.922, 0.020, 2.965, 0.000, 0.996, 0.992
-0.828, 0.019, 2.927, 0.000, 0.996, 0.953
-0.579, 0.015, 2.266, 0.000, 0.996, 0.289
-0.649, 0.019, 2.840, 0.000, 0.996, 0.863
-0.578, 0.019, 2.870, 0.000, 0.996, 0.895
-0.492, 0.019, 2.813, 0.000, 0.996, 0.836
-0.416, 0.019, 2.799, 0.000, 0.996, 0.824
-0.339, 0.018, 2.768, 0.000, 0.996, 0.793
-0.268, 0.018, 2.776, 0.000, 0.996, 0.801
-0.192, 0.018, 2.719, 0.000, 0.996, 0.742
-0.123, 0.018, 2.740, 0.000, 0.996, 0.766
-0.053, 0.018, 2.742, 0.000, 0.996, 0.766
0.017, 0.018, 2.673, 0.000, 0.996, 0.695
0.074, 0.015, 2.310, 0.000, 0.996, 0.332
0.132, 0.015, 2.291, 0.000, 0.996, 0.312
0.189, 0.015, 2.267, 0.000, 0.996, 0.289
0.285, 0.017, 2.599, 0.000, 0.996, 0.621
0.354, 0.017, 2.609, 0.000, 0.996, 0.633
0.416, 0.017, 2.571, 0.000, 0.996, 0.594
0.487, 0.017, 2.589, 0.000, 0.996, 0.613
0.547, 0.017, 2.546, 0.000, 0.996, 0.570
0.614, 0.017, 2.538, 0.000, 0.996, 0.562
0.679, 0.017, 2.522, 0.000, 0.996, 0.543
0.744, 0.017, 2.506, 0.000, 0.996, 0.527
0.820, 0.017, 2.521, 0.000, 0.996, 0.543
0.886, 0.017, 2.506, 0.000, 0.996, 0.527
0.953, 0.017, 2.491, 0.000, 0.996, 0.512
1.021, 0.016, 2.474, 0.000, 0.996, 0.496
1.101, 0.017, 2.486, 0.000, 0.996, 0.508
1.170, 0.016, 2.468, 0.000, 0.996, 0.492
1.247, 0.016, 2.466, 0.000, 0.996, 0.488
1.329, 0.016, 2.469, 0.000, 0.996, 0.492
-1.754, 0.063, 3.159, 0.000, 0.801, 0.996
-1.631, 0.062, 3.124, 0.000, 0.836, 0.996
-1.521, 0.062, 3.106, 0.000, 0.855, 0.996
-1.421, 0.062, 3.100, 0.000, 0.863, 0.996
-1.304, 0.061, 3.049, 0.000, 0.914, 0.996
-1.198, 0.060, 3.014, 0.000, 0.949, 0.996
-1.095, 0.059, 2.973, 0.000, 0.988, 0.996
-1.032, 0.061, 3.041, 0.000, 0.922, 0.996
-0.905, 0.058, 2.912, 0.000, 0.996, 0.938
-0.827, 0.058, 2.923, 0.000, 0.996, 0.949
-0.584, 0.046, 2.284, 0.000, 0.996, 0.305
-0.660, 0.058, 2.892, 0.000, 0.996, 0.918
-0.578, 0.057, 2.869, 0.000, 0.996, 0.895
-0.498, 0.057, 2.847, 0.000, 0.996, 0.871
-0.423, 0.057, 2.843, 0.000, 0.996, 0.867
-0.337, 0.055, 2.748, 0.000, 0.996, 0.773
-0.266, 0.055, 2.757, 0.000, 0.996, 0.781
-0.196, 0.055, 2.772, 0.000, 0.996, 0.797
-0.124, 0.055, 2.754, 0.000, 0.996, 0.777
-0.052, 0.054, 2.692, 0.000, 0.996, 0.715
0.017, 0.053, 2.638, 0.000, 0.996, 0.660
0.074, 0.046, 2.294, 0.000, 0.996, 0.316
0.134, 0.046, 2.318, 0.000, 0.996, 0.340
0.189, 0.045, 2.259, 0.000, 0.996, 0.281
0.288, 0.053, 2.630, 0.000, 0.996, 0.652
0.353, 0.052, 2.605, 0.000, 0.996, 0.629
0.420, 0.052, 2.595, 0.000, 0.996, 0.617
0.489, 0.052, 2.599, 0.000, 0.996, 0.621
0.547, 0.051, 2.544, 0.000, 0.996, 0.566
0.615, 0.051, 2.543, 0.000, 0.996, 0.566
0.678, 0.050, 2.520, 0.000, 0.996, 0.543
0.741, 0.050, 2.496, 0.000, 0.996, 0.520
0.811, 0.050, 2.495, 0.000, 0.996, 0.520
0.892, 0.050, 2.521, 0.000, 0.996, 0.543
0.953, 0.050, 2.490, 0.000, 0.996, 0.512
1.029, 0.050, 2.494, 0.000, 0.996, 0.516
1.109, 0.050, 2.505, 0.000, 0.996, 0.527
1.174, 0.050, 2.478, 0.000, 0.996, 0.500
1.241, 0.049, 2.453, 0.000, 0.996, 0.477
1.331, 0.049, 2.472, 0.000, 0.996, 0.496
-1.752, 0.105, 3.157, 0.000, 0.805, 0.996
-1.658, 0.106, 3.177, 0.000, 0.785, 0.996
-1.513, 0.103, 3.090, 0.000, 0.871, 0.996
-1.409, 0.102, 3.074, 0.000, 0.887, 0.996
-1.309, 0.102, 3.060, 0.000, 0.902, 0.996
-1.202, 0.101, 3.024, 0.000, 0.938, 0.996
-1.104, 0.100, 2.998, 0.000, 0.965, 0.996
-0.991, 0.097, 2.921, 0.000, 0.996, 0.945
-0.902, 0.097, 2.899, 0.000, 0.996, 0.926
-0.837, 0.099, 2.957, 0.000, 0.996, 0.984
-0.584, 0.076, 2.286, 0.000, 0.996, 0.305
-0.662, 0.097, 2.900, 0.000, 0.996, 0.926
-0.573, 0.095, 2.844, 0.000, 0.996, 0.867
-0.505, 0.096, 2.887, 0.000, 0.996, 0.914
-0.420, 0.094, 2.829, 0.000, 0.996, 0.855
-0.343, 0.093, 2.800, 0.000, 0.996, 0.824
-0.269, 0.093, 2.789, 0.000, 0.996, 0.812
-0.196, 0.092, 2.772, 0.000, 0.996, 0.797
-0.123, 0.091, 2.744, 0.000, 0.996, 0.770
-0.052, 0.091, 2.725, 0.000, 0.996, 0.750
0.017, 0.088, 2.655, 0.000, 0.996, 0.680
0.075, 0.077, 2.323, 0.000, 0.996, 0.344
0.133, 0.077, 2.300, 0.000, 0.996, 0.320
0.193, 0.077, 2.304, 0.000, 0.996, 0.324
0.290, 0.088, 2.646, 0.000, 0.996, 0.668
0.355, 0.087, 2.623, 0.000, 0.996, 0.648
0.415, 0.086, 2.568, 0.000, 0.996, 0.590
0.483, 0.086, 2.567, 0.000, 0.996, 0.590
0.550, 0.085, 2.558, 0.000, 0.996, 0.582
0.611, 0.084, 2.525, 0.000, 0.996, 0.547
0.675, 0.084, 2.507, 0.000, 0.996, 0.531
0.750, 0.084, 2.527, 0.000, 0.996, 0.551
0.823, 0.084, 2.533, 0.000, 0.996, 0.555
0.891, 0.084, 2.518, 0.000, 0.996, 0.539
0.945, 0.082, 2.467, 0.000, 0.996, 0.488
1.035, 0.084, 2.509, 0.000, 0.996, 0.531
1.101, 0.083, 2.486, 0.000, 0.996, 0.508
1.181, 0.083, 2.493, 0.000, 0.996, 0.516
1.258, 0.083, 2.488, 0.000, 0.996, 0.512
1.326, 0.082, 2.463, 0.000, 0.996, 0.484
-1.757, 0.148, 3.165, 0.000, 0.797, 0.996
-1.647, 0.147, 3.156, 0.000, 0.805, 0.996
